ncols        70
nrows        34
xllcorner    8.180416666624
yllcorner    48.036250000003
cellsize     0.000833333333
NODATA_value 0
 1088 1075 1060 1041 1021 999 980 965 955 944 942 933 920 909 899 905 908 895 881 883 908 936 963 984 982 971 957 939 917 889 879 882 891 903 923 943 957 962 956 949 962 973 988 1001 1009 1017 1025 1033 1037 1043 1042 1050 1058 1061 1060 1060 1061 1064 1066 1060 1054 1049 1041 1035 1031 1034 1037 1039 1039 1031
 1090 1076 1052 1026 1007 999 996 995 987 974 958 939 925 930 933 941 937 910 884 878 890 918 944 961 969 961 947 925 896 874 877 888 906 930 953 970 984 989 985 981 989 999 1012 1023 1029 1034 1038 1039 1042 1040 1037 1041 1054 1059 1062 1066 1070 1071 1063 1053 1044 1030 1017 1010 1005 1013 1020 1025 1028 1027
 1087 1081 1068 1051 1035 1030 1032 1031 1025 1012 994 976 971 973 972 965 946 915 887 875 881 906 928 947 953 946 928 907 882 873 878 896 918 944 969 984 1001 1012 1013 1008 1012 1021 1032 1039 1037 1031 1024 1022 1024 1017 1021 1031 1039 1049 1056 1064 1072 1073 1067 1055 1039 1036 1024 1003 990 985 988 993 996 1001
 1074 1076 1072 1063 1053 1044 1045 1048 1046 1036 1022 1006 1000 997 990 975 948 922 899 876 872 879 899 921 924 922 909 889 872 872 882 895 921 949 973 992 1010 1026 1035 1038 1041 1043 1046 1041 1029 1013 995 987 989 989 993 1005 1025 1039 1052 1064 1071 1072 1067 1055 1046 1040 1033 1018 1003 982 969 965 963 965
 1053 1056 1059 1052 1046 1039 1040 1043 1041 1039 1036 1032 1026 1017 1006 989 963 933 906 884 876 871 877 892 904 903 893 879 870 872 882 910 944 964 982 1005 1021 1034 1048 1053 1052 1050 1045 1040 1030 1007 981 957 956 969 986 1006 1028 1039 1050 1056 1063 1066 1063 1057 1054 1047 1038 1026 1013 999 976 957 952 944
 1043 1049 1048 1040 1035 1027 1022 1023 1024 1026 1028 1029 1031 1025 1013 993 967 940 917 906 884 870 869 871 879 884 880 873 871 875 886 922 955 979 999 1018 1033 1045 1050 1050 1045 1038 1029 1021 1012 995 968 948 956 978 994 1010 1023 1031 1036 1037 1044 1052 1060 1063 1059 1046 1035 1021 1009 999 985 977 975 959
 1040 1041 1042 1037 1037 1033 1024 1011 1003 1000 1002 1008 1020 1020 1014 1006 983 963 948 936 920 893 875 867 869 876 875 870 871 878 892 930 960 985 1006 1024 1039 1046 1048 1044 1032 1017 1006 996 984 969 943 925 941 971 983 998 1009 1014 1014 1020 1030 1040 1052 1061 1062 1051 1038 1028 1018 1015 1013 1009 1001 985
 1024 1024 1031 1036 1038 1042 1038 1029 1012 989 973 983 1003 1012 1014 1012 1007 1000 989 974 950 922 894 877 869 867 869 868 868 880 909 941 965 988 1008 1027 1040 1046 1043 1037 1023 1003 987 970 947 938 920 919 949 970 980 993 1003 1002 995 995 1007 1026 1043 1058 1064 1057 1046 1044 1046 1039 1031 1022 1014 1012
 1003 1006 1016 1027 1036 1042 1040 1040 1030 1008 976 971 978 991 1005 1014 1014 1013 1004 988 965 937 908 884 875 869 863 865 868 881 908 938 963 986 1006 1022 1032 1036 1035 1026 1011 995 975 954 932 915 906 916 950 966 981 991 992 992 983 980 1000 1019 1036 1051 1058 1062 1063 1062 1059 1054 1045 1039 1033 1033
 979 984 998 1011 1024 1032 1031 1031 1029 1020 1003 979 965 970 979 994 998 998 992 978 957 934 916 897 882 874 871 865 865 881 908 936 959 984 999 1012 1019 1024 1028 1021 1002 976 947 935 918 903 902 930 955 969 982 986 980 967 962 976 995 1006 1020 1034 1043 1052 1058 1061 1062 1060 1059 1053 1048 1048
 988 976 976 986 1000 1008 1010 1006 1002 1003 999 991 974 961 965 982 985 981 975 966 958 954 945 938 920 896 874 866 863 868 895 928 951 972 985 995 1007 1014 1017 1013 1000 974 942 918 906 898 903 936 960 976 983 977 958 940 948 969 983 992 999 1010 1023 1037 1048 1056 1060 1063 1063 1058 1053 1047
 1011 997 977 967 973 976 977 977 970 971 971 973 970 965 958 961 970 974 975 972 968 971 965 958 934 905 881 867 863 864 881 909 936 956 971 980 988 996 1004 1005 996 975 938 909 897 889 909 939 961 973 975 969 947 929 934 950 964 971 978 990 1007 1024 1038 1046 1047 1048 1049 1042 1033 1025
 1018 1003 993 991 983 979 978 973 966 956 952 951 952 957 953 942 953 968 970 966 971 970 961 951 930 902 877 868 863 860 865 880 907 920 935 952 964 981 992 989 979 961 929 897 884 888 914 939 958 967 965 958 943 919 917 929 939 949 959 978 999 1016 1029 1033 1032 1028 1023 1018 1007 1000
 1034 1021 1016 1014 1006 1003 1000 995 987 974 954 933 929 933 936 926 933 954 958 951 945 949 950 941 921 910 891 870 861 860 860 864 874 889 904 924 946 960 967 964 956 937 914 890 875 884 906 935 957 965 960 950 942 926 904 899 915 939 958 976 997 1016 1024 1023 1018 1002 991 985 976 967
 1021 1010 1003 1002 995 987 987 985 976 969 964 944 927 920 924 923 918 930 938 934 928 925 924 920 919 913 903 884 868 864 861 861 861 865 884 903 917 936 941 934 925 915 902 882 869 879 903 934 954 960 951 934 929 923 903 890 913 938 958 981 999 1017 1022 1015 1002 977 958 949 941 936
 1022 1010 999 989 979 968 960 957 953 944 942 940 930 918 915 921 915 908 914 921 920 914 901 897 902 906 904 894 882 872 864 863 857 856 864 882 894 904 909 911 907 902 889 868 865 882 914 936 950 948 935 925 914 909 898 888 911 933 957 976 995 1008 1008 1002 996 990 969 951 928 912
 1015 1011 1001 991 980 969 956 948 941 938 932 929 923 911 907 913 912 905 899 905 910 910 902 889 885 889 892 890 883 874 867 863 858 856 857 862 867 875 883 886 888 881 866 860 868 885 915 934 943 939 930 916 897 886 879 883 907 932 954 966 979 992 991 990 992 983 967 948 931 909
 997 998 997 986 977 966 959 957 955 952 947 938 926 911 899 900 906 906 899 893 890 893 894 892 881 876 877 874 868 865 863 860 859 856 856 856 853 852 856 860 861 859 856 858 870 884 904 919 924 921 915 910 896 871 864 886 912 927 945 956 961 968 971 974 969 957 936 918 904 895
 980 969 969 960 952 950 950 951 953 949 948 947 943 930 906 893 893 896 896 893 887 880 878 881 874 870 865 863 861 861 860 861 859 858 858 856 854 853 851 850 851 851 851 852 860 869 878 884 889 890 895 898 889 866 857 876 903 922 936 944 946 946 945 946 940 932 910 887 878 872
 994 968 952 942 935 933 934 934 930 932 935 939 941 940 925 907 890 884 883 884 883 875 870 872 865 863 861 863 866 864 862 868 873 878 883 878 870 862 858 855 854 853 852 851 852 853 851 859 863 869 877 881 875 856 855 865 884 905 916 919 917 915 913 913 906 895 878 863 859 855
 982 971 956 945 938 932 926 927 928 919 916 923 929 932 929 923 911 894 882 876 874 871 866 865 864 863 861 866 881 892 904 912 915 913 914 905 891 880 875 866 860 855 851 852 848 846 847 845 847 851 856 857 853 847 849 856 867 876 884 884 883 879 878 877 871 863 856 848 845 842
 963 957 952 944 935 933 933 934 935 925 908 902 908 917 921 917 912 903 889 878 871 869 868 866 873 878 887 895 901 915 929 939 946 947 941 921 906 885 871 865 860 857 857 861 863 859 857 851 845 844 844 845 845 842 842 844 845 851 852 856 855 856 853 853 852 847 843 837 833 833
 962 952 939 927 924 923 927 929 927 921 906 892 892 898 904 900 894 891 883 875 869 872 889 899 904 921 926 927 926 932 944 956 961 952 935 910 890 871 857 851 865 883 890 893 896 901 904 898 888 870 853 846 842 841 839 838 838 838 839 842 841 841 840 841 839 836 835 832 828 829
 966 961 950 926 912 909 918 916 912 907 900 890 886 883 883 882 878 876 872 872 877 895 919 929 939 951 956 953 950 950 961 961 961 945 925 911 889 876 877 895 909 916 917 915 919 927 931 925 909 883 858 849 849 847 841 839 839 836 837 838 836 837 836 835 833 832 833 832 831 834
 957 952 941 926 910 903 901 900 899 893 890 887 886 882 878 876 874 872 875 882 897 926 942 951 959 965 973 977 975 976 976 971 963 951 941 927 904 893 906 923 934 942 945 946 946 942 932 920 900 874 862 866 867 862 857 858 851 845 845 845 843 843 838 835 834 836 837 839 846 862
 941 939 933 927 919 916 908 903 905 906 910 907 894 884 877 872 874 886 902 901 906 941 960 971 983 990 997 1001 998 989 977 966 955 941 931 912 897 896 920 941 954 961 963 959 955 944 927 910 890 876 879 894 899 895 897 885 880 881 878 878 874 866 854 841 838 838 849 870 886 898
 969 971 967 970 962 950 934 926 926 929 932 922 899 880 874 881 896 919 935 930 926 945 965 986 999 1011 1017 1018 1012 1000 978 951 933 922 908 893 891 902 934 956 966 967 963 952 941 925 904 892 885 885 900 913 925 928 929 928 921 911 903 900 892 881 865 847 842 843 855 881 903 919
 996 996 994 994 988 981 962 946 945 947 939 919 890 880 885 904 923 943 956 959 952 956 977 995 1012 1025 1032 1032 1024 1007 987 963 938 918 902 892 893 917 953 971 976 973 964 949 928 904 891 891 896 907 922 936 945 949 947 947 943 933 918 908 897 887 873 857 847 848 861 884 910 930
 1010 1010 1010 1008 1000 987 967 945 938 936 924 902 884 883 899 928 945 959 972 980 979 979 991 1006 1022 1038 1044 1045 1036 1022 998 974 947 924 908 897 901 934 964 974 975 969 965 950 929 897 892 899 911 925 941 956 964 969 971 964 955 946 936 919 907 894 876 855 847 851 862 892 916 935
 1019 1020 1018 1014 999 975 956 942 938 927 908 892 883 887 913 944 960 974 989 999 1005 1004 1003 1010 1018 1029 1038 1041 1042 1030 1009 991 969 950 931 914 912 941 967 973 973 967 958 944 923 906 908 923 941 953 962 971 977 976 972 963 956 943 931 917 902 889 871 857 855 855 858 878 902 919
 1012 1011 1007 1002 986 964 945 937 936 927 913 893 884 887 915 943 965 981 992 1002 1002 991 986 987 991 1003 1017 1025 1028 1024 1017 1005 988 971 957 944 938 951 970 973 968 959 949 942 937 936 940 953 962 973 980 982 982 973 960 944 936 926 916 902 887 876 872 872 878 876 868 872 885 898
 985 981 977 974 962 945 927 918 915 910 902 892 886 886 898 925 956 970 981 985 975 959 951 962 979 994 1006 1015 1023 1033 1040 1038 1022 1003 991 982 980 980 981 983 974 966 965 965 964 963 964 970 977 984 989 993 987 973 957 931 912 904 898 889 888 893 900 900 900 901 888 874 878 896
 959 952 940 933 931 925 915 907 904 897 891 893 897 893 889 902 927 943 956 957 942 929 944 971 992 1006 1012 1017 1027 1039 1044 1045 1044 1035 1026 1020 1020 1017 1007 997 991 990 989 990 991 990 986 988 995 1000 1001 995 988 971 950 931 908 898 896 902 912 920 927 924 930 926 911 887 886 902
 965 959 950 939 935 926 913 901 894 893 903 923 929 917 900 891 900 918 927 926 916 923 953 976 991 997 1000 1005 1012 1020 1026 1025 1024 1027 1023 1018 1023 1019 1006 1004 1001 1002 1008 1011 1013 1013 1008 1006 1012 1015 1009 998 986 969 946 932 928 924 915 924 943 955 961 960 957 948 925 904 904 916
